# .PCD v0.7 - Point Cloud Data file format
VERSION 0.7
FIELDS x y z intensity
SIZE 4 4 4 4
TYPE F F F F
COUNT 1 1 1 1
WIDTH 1360
HEIGHT 1
VIEWPOINT 0 0 0 1 0 0 0
POINTS 1360
DATA ascii
3.3490658 -29.485893 -0.51798743 28
0.44550726 -29.004295 -0.84420729 5
0.14758784 -9.6085548 -1.9219495 0
3.0040636 -46.707497 0 20
-1.6988112 -50.676102 -0.59029609 11
0.72959489 -11.343818 -1.7684805 2
0.2097597 -13.656192 -1.738461 2
3.5806448 -31.524767 0.18440041 23
0.64804506 -42.190311 -0.24523954 12
0.95109516 -14.787727 -1.5961745 2
-0.59806162 -17.840376 -1.6663015 1
2.9698839 -46.176067 1.0767112 26
-1.3876461 -41.393944 0.48217368 9
1.2029498 -18.703588 -1.3105845 19
0.29047155 -18.910854 -1.5439724 13
0.65600377 -42.708458 0.74556679 14
2.0993352 -18.482998 -1.1921687 36
-0.71911991 -21.451584 -1.2499892 24
2.957974 -45.990891 2.6839299 21
0.65961105 -42.943306 1.7497619 6
1.4097472 -21.918898 -1.0231264 30
0.3428781 -22.322729 -1.1700227 28
6.9795737 -108.51914 13.352006 63
1.0454282 -68.061539 5.5568686 33
2.5452814 -22.409204 -0.91884482 33
-0.91129237 -27.184153 -0.94982475 3
1.0300814 -67.062401 12.228651 29
1.8246397 -28.369688 -0.66151065 9
3.2537856 -29.472418 -0.51756859 28
0.35624394 -29.157476 -0.84862906 5
2.3227754 -37.977032 0 11
-1.8635718 -50.822392 -0.59206551 5
0.69491965 -11.361834 -1.7709402 2
0.16714844 -13.68059 -1.7414914 2
3.4679852 -31.412615 0.18367974 23
0.51574481 -42.212139 -0.24535577 12
0.90633416 -14.81843 -1.5991733 2
-0.65483409 -17.858307 -1.6681602 1
2.9795837 -48.715755 1.1357065 31
-1.5126957 -41.253475 0.48059049 4
1.1463786 -18.743122 -1.3130959 26
0.23179202 -18.971468 -1.5488542 14
3.4227006 -31.002432 0.90774107 6
0.52437216 -42.918259 0.74919689 14
2.0438883 -18.513308 -1.1937037 33
-0.78518981 -21.413301 -1.2478961 15
2.8012893 -45.800667 2.672302 21
0.59335244 -48.564083 1.9786997 8
1.3430769 -21.95911 -1.0248015 31
0.27450612 -22.467487 -1.1775591 26
6.6759501 -109.15079 13.427077 63
0.64053309 -52.425678 4.280097 14
2.4775016 -22.440926 -0.9198218 33
-1.0006423 -27.289015 -0.95359385 3
0.82036054 -67.144005 12.243001 29
1.7401453 -28.451117 -0.66327864 9
3.163986 -29.655148 -0.5205704 21
0.2497838 -29.206566 -0.85002542 5
2.1934373 -38.157009 0 11
-2.0187194 -50.043907 -0.58307862 5
0.65372533 -11.372197 -1.7721701 2
0.11737847 -13.724757 -1.7470472 2
3.3006327 -30.935898 0.18082027 22
0.35897285 -41.973759 -0.2439609 6
0.85270023 -14.833564 -1.6004584 2
-0.72285241 -17.91946 -1.6741087 1
2.6311829 -45.772026 1.0668476 26
-2.4936554 -61.817535 0.7202571 12
1.0806507 -18.798986 -1.3167232 21
0.16239257 -18.988138 -1.550156 4
3.3557074 -31.452099 0.92054087 14
0.36658567 -42.863903 0.74821955 14
1.9794075 -18.552429 -1.1957502 33
-0.86592191 -21.466141 -1.2511518 18
2.6622775 -46.312946 2.7016041 22
1.2612077 -21.939955 -1.0236847 30
0.19328371 -22.600159 -1.1844676 30
6.2790356 -109.23003 13.433902 63
0.44848031 -52.439632 4.2810731 28
2.3990507 -22.485624 -0.9212873 28
-1.105328 -27.401001 -0.9576422 3
0.56873953 -66.501236 12.125336 28
1.642051 -28.565098 -0.66579109 9
3.1285822 -30.326405 -0.53215879 15
0.14858377 -29.355196 -0.85433084 5
2.5725441 -47.654613 0 21
-1.7425195 -39.751133 -0.46322203 6
0.61466509 -11.38625 -1.7740148 2
0.069530904 -13.736986 -1.7485625 1
3.144604 -30.481709 0.17810029 11
0.21673058 -42.818733 -0.24886617 6
0.8034901 -14.884103 -1.605599 2
-0.78609473 -17.932743 -1.6755959 1
5.7841249 -107.14694 2.4968796 63
1.0150251 -18.802643 -1.3167232 28
0.096293941 -19.024469 -1.5530852 13
3.2216938 -31.228964 0.91367549 6
0.34145877 -67.460861 1.1775488 26
1.9166852 -18.579079 -1.1970295 33
-0.94346875 -21.522831 -1.2546402 18
2.5322452 -46.908104 2.73579 23
0.21315606 -42.11253 1.7157307 18
1.1884941 -22.016037 -1.027035 28
0.11411224 -22.544771 -1.1815367 27
2.7187994 -50.363892 6.1929131 34
0.26196307 -51.755165 4.2250948 26
2.3267004 -22.553493 -0.92372972 28
-1.2070936 -27.536758 -0.96252817 3
0.2688494 -53.115677 9.6844835 12
1.5466439 -28.650515 -0.66765213 4
3.0315731 -30.372431 -0.53278708 15
0.05136209 -29.427496 -0.85642529 5
2.4246185 -47.862633 0 21
-1.8752732 -39.76511 -0.46345481 6
0.57790297 -11.407963 -1.7770892 2
0.024011128 -13.756983 -1.7510878 2
4.7045012 -47.132999 0.27529874 27
0.75432891 -14.890658 -1.6060274 2
-0.84537065 -17.926058 -1.6752239 1
2.3693366 -46.771351 1.0897386 27
-1.9272752 -40.867809 0.47630656 32
0.95387828 -18.829817 -1.3183974 19
0.033233088 -19.04063 -1.554387 11
3.1494875 -31.55378 0.92286807 7
1.8570459 -18.60519 -1.1983085 33
-1.0253707 -21.742954 -1.2676632 24
2.5302191 -49.947216 2.9125326 30
0.073161282 -41.917171 1.7077521 12
1.1189156 -22.087698 -1.0301991 34
0.039349578 -22.545025 -1.1815367 24
5.5104899 -108.77857 13.373456 63
0.090451621 -51.823528 4.2306275 26
2.2546756 -22.588924 -0.92486954 34
-1.3012279 -27.592497 -0.96462208 3
0.090029322 -51.581577 9.4046679 12
1.4568861 -28.759329 -0.67007148 9
3.0135934 -31.354713 -0.5498206 8
-0.056749303 -29.559429 -0.86026525 5
2.2690752 -48.294727 0 22
-2.0017173 -39.378483 -0.45903122 3
0.53627205 -11.413951 -1.7777041 2
-0.026441632 -13.772849 -1.7531081 2
4.4329853 -46.122677 0.26930085 26
-0.082075365 -42.751202 -0.24847096 13
0.7025463 -14.952912 -1.6124533 2
-0.91612232 -18.022278 -1.6845183 1
2.3459718 -49.931389 1.1631571 34
-2.0768478 -40.856476 0.47626004 9
0.88523132 -18.841158 -1.3189554 30
-0.036608484 -19.068533 -1.5566652 13
-0.082317628 -42.877392 0.748429 21
1.791515 -18.639688 -1.2000993 30
-1.1119488 -21.874645 -1.2755702 26
2.3482602 -49.980091 2.913928 30
-0.090241812 -47.004921 1.9150335 8
1.0405774 -22.147528 -1.0328048 31
-0.043566518 -22.692816 -1.1892824 27
5.1138067 -108.84166 13.378818 63
-0.10095461 -52.584976 4.2927899 14
2.1779852 -22.66069 -0.92747474 28
-1.4088455 -27.715302 -0.96908927 3
1.3565347 -28.872326 -0.67258394 10
2.9266219 -31.607965 -0.554079 8
-0.16023076 -29.615028 -0.86189437 5
2.5974982 -59.731552 0 32
-2.2118523 -40.709194 -0.4746303 7
0.49745804 -11.439446 -1.7813936 2
-0.074688159 -13.804417 -1.7571486 2
4.2649574 -46.062191 0.26885915 26
-0.22387755 -41.3787 -0.24049701 6
0.6506936 -14.96322 -1.6133101 2
-0.98161739 -18.066692 -1.6889797 1
2.1796608 -50.123047 1.1674374 34
-2.929028 -53.908829 0.62852544 16
0.82101989 -18.880011 -1.3214666 30
-0.1033838 -19.108156 -1.5599198 13
2.9291465 -31.635231 0.9246136 7
-0.34638441 -64.021317 1.1175126 25
1.7301214 -18.685575 -1.2026577 33
-1.1934962 -21.966328 -1.2811515 21
2.175869 -50.035854 2.9167187 30
0.96482623 -22.186951 -1.03448 28
-0.12349006 -22.824343 -1.1961907 30
2.1867678 -50.28648 6.1802387 34
-0.32255402 -59.61681 4.8668976 23
2.1032951 -22.71591 -0.9294287 34
-1.5090488 -27.77408 -0.97132277 3
-0.2797361 -51.702888 9.4269104 24
1.2600893 -28.976763 -0.67491025 10
2.8382666 -31.864971 -0.55840719 8
-0.26528257 -29.802204 -0.86736339 6
2.3864143 -59.676308 0 31
-2.3583341 -40.777092 -0.47551501 7
0.45831186 -11.460859 -1.7844683 2
-0.12308806 -13.827879 -1.760179 1
4.2205372 -47.383606 0.27648437 28
-0.36657631 -41.181679 -0.23935787 12
0.59925056 -14.98527 -1.6154521 2
-1.0458283 -18.083036 -1.6908387 1
2.004838 -50.13435 1.1675305 34
0.75638419 -18.91466 -1.3236989 21
-0.17036976 -19.13957 -1.5625234 14
2.8045073 -31.485958 0.91995901 7
-0.37350407 -41.959953 0.73244262 13
1.6662999 -18.707405 -1.203681 30
-1.2736273 -22.021824 -1.2846398 22
2.7962742 -69.925545 4.0755458 37
-0.38292769 -43.018616 1.7526929 13
0.88816851 -22.210148 -1.0354105 25
-0.20344892 -22.855728 -1.1978655 33
-0.37672266 -42.321533 3.4550612 14
2.0296593 -22.786808 -0.93203402 28
-1.6143026 -27.912317 -0.97634834 3
-0.46056899 -51.740944 9.4340839 24
1.1627644 -29.076883 -0.67714351 10
2.7447503 -32.081898 -0.56203729 8
-0.37123957 -29.957014 -0.87190151 6
2.1753244 -59.608322 0 31
-2.4592707 -40.093922 -0.46764562 6
0.41902497 -11.482138 -1.7875427 2
-0.17135434 -13.827364 -1.760179 1
-0.50779337 -40.976166 -0.23817225 11
0.54839033 -15.027013 -1.6197358 2
-1.1118679 -18.126978 -1.6953 1
3.1544752 -86.439049 2.012727 63
-3.2629476 -53.196411 0.62046975 24
0.69093889 -18.933134 -1.3248149 26
-0.23752236 -19.166763 -1.5648016 13
2.6901557 -31.443769 0.91844636 7
-0.86186802 -69.548065 1.2140592 27
1.6030321 -18.736973 -1.2052161 30
-1.3548886 -22.088987 -1.2888259 21
2.5344107 -69.448013 4.0471735 37
-0.52377367 -42.26569 1.7220809 12
0.8132602 -22.284986 -1.0387608 20
-0.28401893 -22.918785 -1.201215 35
1.8507071 -50.713142 6.2309361 34
-0.59943771 -48.371365 3.9491065 19
1.9552183 -22.853485 -0.93447644 29
-1.7146593 -27.954391 -0.97802353 3
-0.64897299 -52.368591 9.5488806 12
1.0650547 -29.184668 -0.67956287 10
2.6634848 -32.465965 -0.5685994 8
-0.47866514 -30.135439 -0.87713784 6
1.9651268 -59.551586 0 31
-2.5798001 -39.785748 -0.46415329 6
0.37894192 -11.48353 -1.7875427 2
-0.22012433 -13.858422 -1.7642198 2
3.8749223 -47.232517 0.27543825 27
0.49829346 -15.100383 -1.6274469 2
-1.1741056 -18.107088 -1.6938128 1
3.5461884 -107.46439 2.5019972 63
-2.7128274 -41.837296 0.48808736 14
0.62563473 -18.959358 -1.3264891 28
-0.30499578 -19.201694 -1.5677308 14
3.6811187 -44.870193 1.3102376 20
1.5408815 -18.782238 -1.2077743 33
-1.4379288 -22.175776 -1.2941747 22
2.2819655 -69.15313 4.0294995 36
0.74271333 -22.50733 -1.0489976 24
-0.36585909 -23.033482 -1.207286 20
1.6576976 -50.235191 6.171464 34
-0.76581353 -48.213512 3.9364133 19
1.8793538 -22.907972 -0.93643039 23
-1.8155912 -28.000095 -0.97983831 3
-0.82195896 -51.748272 9.4362373 12
0.96713036 -29.308107 -0.68235445 5
2.5865593 -32.865353 -0.5754407 9
-0.58043849 -30.229628 -0.8799305 6
1.7658535 -59.497803 0 31
-2.7103615 -39.757023 -0.46392047 6
0.34109315 -11.492626 -1.7887726 2
-0.26646072 -13.877453 -1.7667451 2
3.6655469 -46.575191 0.27153262 26
-0.76235604 -39.70401 -0.23080273 16
0.44833344 -15.105928 -1.6278753 2
-1.2428135 -18.230247 -1.7057097 1
2.5343537 -85.391273 1.9878819 63
-3.8466837 -56.425201 0.65841967 18
0.56346941 -18.985262 -1.3281633 28
-0.36897606 -19.21652 -1.5690325 13
2.6379333 -33.51812 0.97848922 8
-1.2981639 -67.609245 1.1803411 26
1.4814068 -18.823059 -1.2100767 33
-1.5128173 -22.190807 -1.2953374 26
2.0502608 -69.080482 4.0248485 36
-0.81368059 -42.377029 1.7268031 12
0.66617483 -22.445768 -1.0460197 21
-0.44607395 -23.231831 -1.2177532 20
1.4860361 -50.069775 6.1505027 33
-0.79673117 -41.494293 3.3880169 7
1.809335 -22.989782 -0.93952417 23
-1.9198537 -28.161432 -0.98570138 3
-0.94052768 -48.983311 8.9325695 10
0.8739683 -29.44706 -0.68551826 5
2.5009084 -33.261028 -0.58221227 9
1.5556419 -59.407639 0 31
-2.8476942 -39.727367 -0.46368763 9
0.30169824 -11.521404 -1.793077 2
-0.31544098 -13.900239 -1.7697755 1
3.5683262 -47.457233 0.27660063 28
-0.90747923 -39.989029 -0.23247656 11
0.39622539 -15.131254 -1.6304456 2
-1.3070115 -18.233744 -1.7064532 1
2.2346947 -85.339645 1.9864862 63
-2.9186151 -40.716763 0.47523561 9
0.49834344 -19.030991 -1.3312325 26
-0.43686664 -19.250988 -1.5719618 14
3.4829354 -46.321575 1.3518953 23
-1.2748357 -56.176975 0.98082525 18
1.4177876 -18.855978 -1.2118675 33
-1.5919822 -22.20929 -1.2967328 28
1.7461829 -66.684113 3.8848495 35
-1.0438418 -45.99799 1.8744889 15
0.5912714 -22.579769 -1.0521618 15
-0.52861613 -23.294025 -1.2211026 25
1.3180047 -50.332626 6.1821885 68
1.7350675 -23.075666 -0.94278073 30
-2.0210025 -28.194429 -0.98709732 3
-1.1072217 -48.79089 8.8981304 10
0.7741037 -29.561861 -0.6881237 5
2.4046557 -33.629002 -0.58849514 9
-0.80443323 -30.516474 -0.88842493 12
1.332938 -59.192997 0 31
-2.9944866 -39.73262 -0.46387392 9
0.25955695 -11.526384 -1.7936919 2
-0.36722252 -13.930723 -1.773816 1
3.6439891 -50.961021 0.29694232 34
-1.0457141 -39.669556 -0.23063999 11
0.34130085 -15.156461 -1.633016 2
-1.376527 -18.264574 -1.7097993 1
1.932606 -85.823006 1.9975593 63
-3.0464888 -40.422615 0.47192952 4
0.43011487 -19.100506 -1.335976 23
-0.5083679 -19.285126 -1.5748909 14
3.3125637 -46.326054 1.3516625 22
-1.1023775 -41.819103 0.73020864 6
1.3512295 -18.896885 -1.2141701 30
-1.678775 -22.274981 -1.3009188 26
1.3429993 -59.639809 3.4741557 30
-1.2151649 -46.097733 1.8787225 15
0.51282585 -22.773527 -1.0610957 15
-0.61483192 -23.323877 -1.2227774 25
1.1217186 -49.81319 6.1178412 66
-1.0825012 -41.065083 3.3535185 20
1.6536142 -23.125721 -0.94457179 24
-2.136044 -28.342297 -0.99254167 3
-1.3418313 -50.90287 9.284132 11
2.339371 -34.315117 -0.60036278 9
-0.90704602 -30.561598 -0.88982123 12
1.1331886 -59.017124 0 31
-3.1428568 -39.9338 -0.46634182 10
0.22178882 -11.550891 -1.7973813 2
-0.4141216 -13.953226 -1.7768465 1
3.3454814 -49.073269 0.28587645 30
-1.1768981 -39.653873 -0.23057026 11
0.29119223 -15.165462 -1.6338726 2
-1.4358352 -18.244024 -1.7083122 1
0.36731067 -19.129753 -1.3379291 22
-0.57326156 -19.315214 -1.5774945 13
3.1173189 -45.72646 1.3338592 21
-1.7563282 -59.176926 1.0333918 22
1.2904599 -18.92914 -1.2159609 35
-1.7607763 -22.372795 -1.3069654 22
1.1414676 -59.448296 3.4627602 30
-1.2696099 -42.77766 1.7435744 12
0.44106373 -22.970856 -1.0702159 21
-0.69442302 -23.397575 -1.2267549 20
0.95927376 -49.959538 6.1353908 33
-1.2097982 -40.762394 3.329109 13
1.5804533 -23.182915 -0.94668859 30
-2.2406805 -28.470558 -0.99728805 3
-1.5175076 -51.130211 9.3264637 11
0.61515099 -32.037422 -0.7456302 18
-1.0226487 -30.66596 -0.89296305 19
0.91563582 -58.940891 0 31
-3.3253233 -40.3605 -0.47146392 6
0.17963657 -11.563483 -1.799226 2
-0.46591979 -13.971442 -1.779372 1
3.0271044 -46.937698 0.27336919 27
-1.315959 -39.461395 -0.22947761 10
0.23579296 -15.178357 -1.6351578 2
-1.5151185 -18.389471 -1.7224396 1
-4.4544554 -54.065132 0.6315521 17
0.29800183 -19.182838 -1.3415564 25
-0.64524537 -19.348843 -1.5804237 11
3.0003991 -46.523609 1.3567826 23
1.2236432 -18.973576 -1.2185191 33
-1.8480088 -22.429865 -1.3106861 24
1.1045089 -71.098946 4.1411266 38
-1.5562623 -46.667324 1.9023328 24
0.35978773 -23.160091 -1.0789638 18
-0.78310132 -23.4827 -1.2313606 23
0.77782667 -50.069901 6.1485529 33
-1.358789 -40.745731 3.3281329 20
1.4993336 -23.248379 -0.94913107 24
-2.3505924 -28.529882 -0.99966121 3
-1.6231837 -48.67408 8.8794756 10
0.4931927 -31.747576 -0.73883736 17
2.1603043 -35.320606 -0.6176756 31
-1.120234 -30.550524 -0.88970488 51
0.72105318 -59.015598 0 31
-3.4840872 -40.640163 -0.47486311 7
0.1414824 -11.579823 -1.8016857 2
-0.51355737 -14.005508 -1.7839174 1
2.9251571 -47.825821 0.27848369 28
-1.4558995 -39.704647 -0.23091897 16
0.18584655 -15.21087 -1.638585 2
-1.5760926 -18.384346 -1.7224396 1
0.5162037 -42.249409 0.9831934 19
-3.510052 -40.943031 0.47840196 4
0.23511815 -19.243572 -1.345742 25
-0.71028221 -19.370502 -1.5823765 13
2.9725423 -48.600559 1.4170581 27
-2.0989196 -57.240807 0.99981344 19
1.1631542 -19.017374 -1.2210774 34
-1.9264727 -22.471357 -1.3134768 24
-1.7127676 -46.709839 1.9042867 24
0.28386191 -23.233072 -1.0823139 26
-0.86492151 -23.587757 -1.2370129 21
0.61042458 -49.961048 6.1349034 33
-1.4867424 -40.54578 3.312185 19
1.427354 -23.336994 -0.95255047 24
-2.4557743 -28.645401 -1.0039887 3
-1.8184721 -49.592567 9.0480833 10
0.38629782 -31.617083 -0.73576665 23
2.023411 -35.092361 -0.6135568 31
-1.230724 -30.642311 -0.8924976 25
-3.6095769 -40.444496 -0.47272113 10
0.10123116 -11.600009 -1.8047603 2
-0.56292236 -14.015525 -1.7854327 2
2.7402294 -47.524265 0.27667037 28
0.13285144 -15.223355 -1.63987 2
-1.6434454 -18.414436 -1.7257856 1
0.37265965 -42.702816 0.99370837 19
-3.6735766 -41.161598 0.48110273 9
0.16804573 -19.256245 -1.346579 25
-0.77901644 -19.39579 -1.5846547 11
2.7101157 -47.001999 1.3701642 24
-1.6499702 -41.080616 0.71764296 6
1.0992889 -19.065157 -1.2238916 34
-2.0077436 -22.496315 -1.3153373 21
0.42157778 -48.308308 2.8134637 26
-1.8801422 -46.811394 1.9086831 16
0.20307203 -23.269884 -1.0839891 29
-0.95030218 -23.660427 -1.2409904 27
0.43334913 -49.657181 6.0973673 33
-1.6209108 -40.357101 3.2972143 13
1.347491 -23.369766 -0.95369029 30
-2.5632172 -28.720272 -1.0069203 3
-1.9858935 -49.444366 9.022254 10
0.2756125 -31.582249 -0.73492914 35
1.8874968 -34.851604 -0.60922861 30
-1.3425586 -30.749674 -0.89575577 26
-3.7570095 -40.499352 -0.47351274 10
0.060760714 -11.604243 -1.8053751 2
-0.61287951 -14.03726 -1.7884631 2
0.080170721 -15.311218 -1.6492946 2
-1.7102872 -18.436344 -1.728388 1
-3.6967881 -39.850185 0.46592274 9
0.10103858 -19.296616 -1.3493693 22
-0.84810501 -19.424816 -1.5872583 13
2.5343597 -46.795578 1.3638806 23
-2.4464986 -56.034081 0.97901022 18
1.0344611 -19.100763 -1.2259382 34
-2.0925269 -22.556767 -1.3192908 22
0.22209111 -42.415554 2.470211 14
-2.0384734 -46.688755 1.9039612 16
0.12199232 -23.29842 -1.085292 29
-1.0354981 -23.716827 -1.2441305 30
-1.7642045 -40.406963 3.3017704 19
1.2739061 -23.521986 -0.95971489 18
-2.677114 -28.858427 -1.0120854 3
-2.1476562 -49.189461 8.9770527 10
0.16526644 -31.563025 -0.73446393 35
1.7611802 -34.766121 -0.60762298 20
-1.451579 -30.780745 -0.89680296 26
0.10315683 -59.099915 0 31
-3.9064028 -40.569603 -0.47449058 7
0.020289544 -11.624148 -1.8084497 2
-0.66318202 -14.06278 -1.7919986 1
2.3924048 -47.22665 0.2748338 27
-1.9292539 -40.909843 -0.23803276 11
0.026739407 -15.31936 -1.6501515 2
-1.7765387 -18.450087 -1.7302469 1
-3.8067298 -39.534458 0.46238384 4
0.033681981 -19.296852 -1.3493693 27
-0.91759342 -19.457575 -1.5901873 14
2.3627079 -46.640423 1.3591098 23
-2.6177704 -55.509846 0.97000474 17
0.97020602 -19.152102 -1.2290082 34
-2.1773736 -22.612921 -1.3230116 26
0.073526949 -42.124565 2.4532344 40
-2.2001128 -46.653408 1.9028213 16
0.040904198 -23.434557 -1.0916202 22
-1.1212873 -23.776909 -1.2474799 30
0.088327333 -50.603897 6.213387 34
-1.9059877 -40.416485 3.3030722 19
1.200084 -23.689947 -0.96639097 25
-2.7847264 -28.92053 -1.0145981 3
-2.6151912 -55.455151 10.122144 14
0.054743826 -31.363462 -0.72981125 23
1.6179769 -34.436764 -0.60175902 20
-1.5684465 -30.85508 -0.89913023 19
-0.11227445 -58.483898 0 30
-4.0506954 -40.511234 -0.4739784 7
-0.022353388 -11.643907 -1.8115243 2
-0.71613061 -14.087996 -1.7955341 1
2.3456333 -49.924088 0.29047948 32
-2.0783715 -40.88652 -0.23793977 11
-0.029455138 -15.343217 -1.6527219 2
-1.8461313 -18.463264 -1.7321059 0
-0.083156265 -43.3162 1.0079454 42
-3.9826462 -39.830673 0.46601588 9
-0.037106398 -19.328768 -1.3516015 22
-0.99092722 -19.4939 -1.593442 14
4.0059409 -85.26181 2.4840989 49
-2.1560564 -42.414768 0.74130839 7
0.90094 -19.175465 -1.2302873 25
-2.2650075 -22.65247 -1.3258023 26
-0.080692284 -42.032707 2.4478855 13
-2.6119347 -51.38298 2.0960994 19
-0.045218594 -23.55442 -1.097204 26
-1.2114689 -23.832481 -1.2506201 30
-0.096681871 -50.361702 6.183651 68
-1.9909621 -39.166969 3.2015297 12
1.1149359 -23.730118 -0.96785641 31
-2.9030371 -29.033442 -1.0189257 3
-2.8168297 -55.41375 10.116404 14
-0.060148574 -31.331465 -0.72906685 17
1.4960943 -34.266132 -0.59868735 19
-1.6837316 -31.089258 -0.90611196 19
-4.1850147 -40.497581 -0.4739784 3
-0.061049055 -11.659576 -1.8139838 2
-0.76370305 -14.101393 -1.7975545 2
2.7830496 -63.742203 0.37082338 48
-0.080439597 -15.362919 -1.6548637 2
-1.9204485 -18.583811 -1.7440026 1
-0.22376309 -42.735844 0.99445271 19
-4.101141 -39.685955 0.46447924 4
-0.10147502 -19.380411 -1.3552288 30
-1.0572913 -19.522354 -1.5960456 13
3.7006788 -84.759331 2.4690883 49
0.83926153 -19.222216 -1.2331015 23
-2.3491445 -22.73222 -1.3309186 24
-0.22411413 -42.802891 2.492769 44
-2.7918243 -51.549637 2.1032641 9
-0.12378874 -23.642042 -1.1012987 27
-1.2958949 -23.928049 -1.2558537 30
-0.28807229 -55.018066 6.7554622 41
-2.1555462 -39.801079 3.2539282 18
1.0395492 -23.809549 -0.97095013 25
-3.0058753 -29.087276 -1.0211593 3
-2.6288016 -48.539501 8.8629742 10
-0.16333638 -31.195129 -0.72590309 17
1.3740616 -34.211205 -0.59764022 19
-1.7936286 -31.107141 -0.9068101 19
-0.1018189 -11.667198 -1.8152137 2
-0.81429386 -14.122409 -1.8005849 1
2.5669422 -63.911396 0.37175328 48
-0.13424148 -15.382429 -1.6570057 2
-1.9848862 -18.573034 -1.7436308 1
-0.37085012 -42.494881 0.98886961 19
-4.2600536 -39.862297 0.46671435 13
-0.1694757 -19.419838 -1.358019 35
-1.1272694 -19.550386 -1.5986493 13
2.0172899 -50.226219 1.4629048 29
0.77167499 -19.213062 -1.232334 23
-2.4352736 -22.787413 -1.3346394 24
-0.37004426 -42.402538 2.4695132 14
-0.20684059 -23.701397 -1.1040905 30
-1.3821744 -23.971235 -1.2583659 31
-0.53071094 -60.812973 7.4671793 50
-2.2868972 -39.661964 3.2431881 12
0.95979673 -23.896893 -0.97436953 25
-3.1222627 -29.215727 -1.0260452 3
-2.7941499 -48.459316 8.8500595 20
-0.2717427 -31.138384 -0.72460032 11
1.2329129 -33.784363 -0.59010077 28
-1.9117883 -31.168201 -0.90878832 20
-0.5125615 -41.360828 0 13
-5.4097328 -48.922478 -0.5730207 10
-0.14477535 -11.682554 -1.8176733 2
-0.86653417 -14.12725 -1.8015951 1
2.3408535 -64.144226 0.37305516 48
-0.19076627 -15.393764 -1.6582909 2
-2.0555706 -18.589386 -1.7458614 1
-0.53373039 -43.069035 1.0022691 20
-4.4171128 -39.945801 0.46787843 4
-0.24134207 -19.474945 -1.3619254 32
-1.2003802 -19.569998 -1.600602 11
3.9698284 -108.7815 3.167959 44
-2.4580853 -40.07457 0.70081884 12
0.70227134 -19.243687 -1.2341248 20
-2.5236025 -22.821995 -1.3371977 20
-0.58002925 -46.805096 2.7260225 23
-0.29425138 -23.744429 -1.1061379 27
-1.4739347 -24.0298 -1.2617154 31
-0.75250953 -60.723282 7.4564543 50
-2.409791 -39.287224 3.2132459 12
0.87526709 -23.984127 -0.97778893 31
-3.2495303 -29.386864 -1.0324668 3
-2.9808934 -48.598 8.8773232 10
-0.38660887 -31.197159 -0.72599614 11
1.1174812 -33.864407 -0.59142715 19
-2.0229032 -31.197247 -0.90983552 20
-7.0982561 -62.204067 -0.72887152 11
-0.18586838 -11.701738 -1.820748 2
-0.91763985 -14.151856 -1.8051306 1
2.122869 -64.331902 0.37410128 48
-2.610733 -40.262768 -0.23449913 11
-0.24494195 -15.420839 -1.6612896 2
-2.121351 -18.590012 -1.7466052 1
-1.1050122 -69.56839 1.6190215 48
-4.5692215 -40.041409 0.46918222 4
-0.30976501 -19.501913 -1.3638785 25
-1.2712651 -19.605471 -1.6038567 11
2.8212974 -85.497238 2.4895678 49
-2.5650918 -39.558887 0.691953 6
0.63812155 -19.337782 -1.2400088 20
-2.605515 -22.83288 -1.3383603 22
-0.76268703 -48.016579 2.7967198 25
-2.6003375 -40.102444 1.637247 10
-0.37846643 -23.827156 -1.1100465 30
-1.5624583 -24.096258 -1.2654835 31
-0.78470421 -49.402718 6.0666566 32
-2.5665212 -39.580933 3.2379808 18
0.79404533 -24.062931 -0.9808827 39
-3.3570764 -29.419031 -1.0340023 3
-3.1637557 -48.791492 8.9146318 10
-0.4979192 -31.347559 -0.72953206 17
0.99639547 -33.572105 -0.58626127 9
-2.1347775 -31.31403 -0.91344279 20
-4.5764508 -38.957458 -0.45665643 6
-0.22497571 -11.716865 -1.8232075 2
-0.96564418 -14.164572 -1.8071508 1
1.9184217 -64.638451 0.37584484 48
-2.7276409 -40.010456 -0.233081 5
-0.2976819 -15.503444 -1.6702857 2
-2.2006438 -18.733181 -1.7607325 0
-8.8449125 -75.293129 0.8825804 21
-0.37481782 -19.520727 -1.3652737 25
-1.3392557 -19.644901 -1.6074367 14
2.5604146 -86.26947 2.5117931 50
-2.6725955 -39.203026 0.68587959 18
0.57635921 -19.419592 -1.2451254 25
-2.6900702 -22.899467 -1.3427789 26
-3.2302251 -47.382626 1.9348986 16
-0.45824611 -23.865721 -1.1119077 27
-1.6450737 -24.130798 -1.2675769 28
-0.96460909 -50.237396 6.1695137 34
-2.7069833 -39.707443 3.2490466 18
0.71543002 -24.105381 -0.98251104 32
-3.4709401 -29.546696 -1.0388882 3
-0.59933662 -31.213797 -0.72646135 17
0.87355089 -33.359486 -0.58249158 18
-2.2469263 -31.346268 -0.91460645 20
-0.91475099 -40.309628 0 37
-4.7176924 -38.984924 -0.45716867 6
-0.26605207 -11.723911 -1.8244374 1
-1.0170664 -14.188821 -1.8106865 1
1.7024192 -65.012619 0.37798366 48
-0.35188594 -15.506286 -1.670714 2
-2.2531011 -18.618633 -1.7506945 0
-6.2615857 -51.742981 0.60677987 15
-0.4434064 -19.539248 -1.3666688 25
-1.4100993 -19.671917 -1.6100402 13
2.2915075 -87.508942 2.5476327 51
-2.8477361 -39.728004 0.69523406 6
0.5096156 -19.46139 -1.2476838 23
-2.7795806 -22.969227 -1.34743 22
-2.8718123 -40.063885 1.6364328 10
-0.54490203 -24.011776 -1.1187943 21
-1.7327206 -24.172722 -1.2700891 21
-1.398018 -61.605377 7.5661368 50
-2.9310801 -40.890713 3.346684 6
0.63348168 -24.191633 -0.98593044 32
-3.5836585 -29.613771 -1.0416802 3
-1.1956401 -52.687347 14.121167 33
-3.4943836 -48.749207 8.9110451 21
-0.70048416 -30.867695 -0.71845883 11
-2.3575318 -31.354179 -0.91507185 13
-1.0492756 -40.070267 0 24
-7.3953147 -59.37315 -0.69655591 10
-0.30728525 -11.734762 -1.826282 1
-1.0662912 -14.181225 -1.8101813 1
1.4830022 -65.350067 0.37991321 48
-3.0113935 -40.050266 -0.23342972 11
-0.40632361 -15.51689 -1.6719992 2
-2.3343236 -18.741076 -1.7629632 1
-1.1225812 -42.869694 0.99789572 20
-4.9036784 -39.369095 0.46187165 8
-0.51223564 -19.561512 -1.368343 30
-1.4820473 -19.710608 -1.6136203 13
2.4795856 -109.26559 3.180759 44
-2.9953926 -39.837463 0.69732833 12
0.4420411 -19.479012 -1.2487071 28
-2.8597417 -22.959385 -1.34743 20
-1.2304293 -46.988251 2.7374179 23
-3.017339 -40.129341 1.6395266 10
-0.63258612 -24.157516 -1.1256809 28
-1.8197849 -24.202374 -1.2719731 28
0.55084586 -24.273609 -0.989187 33
-3.7028198 -29.728022 -1.0461473 3
-1.3787384 -52.651955 14.112885 33
-4.2469606 -56.482788 10.327342 14
-0.81503326 -31.124899 -0.72450727 5
0.62819791 -32.716984 -0.57118237 17
-2.5767615 -32.740856 -0.95579863 7
-1.1720542 -39.490612 0 23
-4.4235811 -34.531456 -0.40529597 2
-0.34930101 -11.769175 -1.8318162 2
-1.1235701 -14.276311 -1.8228081 1
1.2566429 -65.446831 0.38044792 48
-3.1803646 -40.410362 -0.23559175 11
-0.46201944 -15.567055 -1.6775683 2
-2.4037769 -18.764416 -1.7659373 1
-1.2305788 -41.462513 0.96523422 17
-5.0354834 -39.308102 0.46135947 8
-0.58240956 -19.623419 -1.3728074 27
-1.5536569 -19.741081 -1.6165494 13
2.0946283 -109.08968 3.1754065 44
-3.229826 -41.03883 0.71855044 13
0.37480968 -19.520348 -1.2512654 27
-2.9510307 -23.0364 -1.3525463 20
-1.1563298 -38.9608 2.2699802 8
-3.1464243 -39.979111 1.6338276 10
-0.71833098 -24.203089 -1.1279144 28
-1.9092712 -24.25959 -1.2753228 31
-1.194294 -40.239952 4.9430208 30
-3.1567357 -40.110126 3.2845211 19
0.46772227 -24.359299 -0.9926064 33
-3.8167274 -29.79422 -1.0489393 3
-1.5649284 -52.727924 14.134626 33
-0.93660659 -31.557558 -0.73465002 5
0.51957297 -32.710892 -0.57104272 17
-2.6728978 -32.580704 -0.95137686 22
-1.3014215 -39.438538 0 23
-5.3827004 -40.940872 -0.48073021 7
-0.38858822 -11.775854 -1.8330461 1
-1.1722041 -14.288326 -1.8248284 1
1.0414466 -65.566628 0.38112208 48
-3.3159897 -40.419529 -0.235708 17
-0.51429552 -15.585313 -1.6797103 2
-2.4706621 -18.79188 -1.7692834 1
-5.1491232 -39.164284 0.45986938 8
-0.64800709 -19.637335 -1.3739235 25
-1.6220468 -19.771585 -1.6194786 11
-3.3662267 -41.031883 0.7186203 6
0.31115294 -19.589336 -1.2556146 33
-3.0326123 -23.066078 -1.3548719 16
-0.79951066 -24.228529 -1.1292174 24
-1.9962415 -24.332748 -1.2795097 25
-1.3142425 -39.827065 4.8928108 28
-3.3519912 -40.858364 3.346684 13
0.38871783 -24.47261 -0.99716562 27
-3.9327052 -29.912193 -1.0535461 3
-1.7396463 -52.718586 14.133591 33
-4.1467671 -50.546112 9.2468233 23
0.40177268 -32.42057 -0.56594664 17
-2.7954681 -32.674751 -0.95440227 15
-1.4564356 -39.909435 0 24
-5.471518 -40.5215 -0.47602719 7
-0.43026674 -11.790225 -1.8355057 1
-1.2234242 -14.299961 -1.8268487 1
0.8136664 -65.657852 0.38163352 48
-3.4594429 -40.435604 -0.23587073 5
-0.56883889 -15.587398 -1.6801386 2
-2.5490317 -18.877869 -1.778206 0
-0.71814924 -19.678818 -1.3769928 22
-1.6937695 -19.797579 -1.6220822 13
0.52597296 -42.442768 1.2353004 15
-3.4422691 -40.234867 0.70486778 12
0.24302058 -19.61026 -1.2568936 30
-3.1355503 -23.221563 -1.3646393 22
-1.4121763 -38.696636 2.2550964 17
-3.4113216 -39.873142 1.6304082 10
-0.88582563 -24.273508 -1.1314509 24
-2.0859313 -24.381351 -1.2824404 28
-1.4529638 -39.814304 4.8918362 14
-3.5832875 -41.88316 3.4316282 7
0.30363902 -24.501795 -0.9983055 27
-4.047255 -29.973555 -1.0561984 3
-1.9263304 -52.785553 14.153261 33
-4.0259748 -47.057499 8.6111403 19
0.28255838 -32.377838 -0.56517875 8
-2.9240944 -32.763847 -0.95731127 15
-1.6025417 -39.899834 0 36
-5.3412814 -38.492554 -0.45241907 6
-0.47379473 -11.796468 -1.8367356 1
-1.2758282 -14.295381 -1.8268487 1
0.5740245 -65.776398 0.38230774 48
-0.62724298 -15.616998 -1.6835657 2
-2.618753 -18.872343 -1.7785779 1
-5.4556274 -39.316601 0.46210447 8
-0.79203272 -19.719908 -1.380062 20
-1.7698642 -19.830948 -1.6253369 15
0.37044331 -42.44841 1.2354168 15
-3.5161216 -39.397385 0.69041717 12
0.17156155 -19.658918 -1.2599636 30
-3.2277753 -23.261332 -1.3676624 24
-1.5642542 -38.946556 2.2699802 17
-3.5567315 -39.852409 1.6300825 10
-0.97687161 -24.321999 -1.1338705 24
-2.1788306 -24.413328 -1.2845339 26
-1.6027055 -39.903912 4.9035349 29
0.21463531 -24.594662 -1.0020505 27
-4.172471 -30.069389 -1.0601071 3
-2.2032082 -54.855133 14.710239 33
-4.1966739 -47.022827 8.6075535 19
-1.2610803 -31.39818 -0.73120701 5
0.17603062 -32.534569 -0.56790131 8
-3.1193569 -33.689575 -0.98465645 16
-5.6310081 -39.615086 -0.46582961 6
-0.51359785 -11.810626 -1.8391953 1
-1.325422 -14.314779 -1.8298792 1
0.35563651 -65.729935 0.38202873 48
-3.7545598 -40.54987 -0.2366844 11
-0.68196511 -15.682378 -1.6908484 2
-2.6897297 -18.922701 -1.7841545 1
-1.7241268 -39.647789 0.92345369 14
-5.5122409 -38.779541 0.45600453 8
-0.85932952 -19.761026 -1.3831314 22
-1.8400278 -19.872608 -1.6292423 14
0.10664925 -19.711273 -1.2632895 30
-3.3290606 -23.4205 -1.3776623 22
-1.7091855 -39.304199 2.2911427 8
-3.6947646 -39.904076 1.6326878 15
-1.0609936 -24.398464 -1.1375929 25
-2.267143 -24.485521 -1.2887207 29
-3.7384984 -40.376408 3.3102324 13
0.13367976 -24.707144 -1.0066097 27
-4.2834148 -30.134542 -1.0628991 3
-4.350409 -46.985146 8.6032476 19
-1.3573763 -31.214043 -0.72701967 5
0.06377095 -33.214882 -0.57976896 9
-3.225075 -33.555099 -0.98104924 24
-1.9769647 -42.077587 0 14
-5.8638296 -40.244289 -0.47346616 7
-0.55648994 -11.844295 -1.8447294 1
-1.3784176 -14.341664 -1.8339198 1
-3.9090893 -40.671886 -0.2374748 11
-0.73782116 -15.703736 -1.6934186 2
-2.7580612 -18.928963 -1.7856417 0
-1.9285719 -41.0476 0.95620811 16
-5.6717906 -38.9263 0.45796022 8
-0.92998689 -19.793779 -1.3856425 25
-1.9128159 -19.901779 -1.6321715 12
0.080711149 -42.038128 1.2234316 14
0.037998445 -19.791361 -1.268406 33
-3.4182756 -23.460108 -1.3806856 20
-2.2108827 -47.056278 2.7434645 23
-3.8374708 -39.926735 1.6341532 15
-1.1476517 -24.426542 -1.139082 25
-2.3564188 -24.51722 -1.2908142 22
-2.5180476 -53.59396 6.58777 39
-3.8889472 -40.462318 3.3183687 19
0.047774747 -24.883314 -1.0137743 27
-4.4064426 -30.242039 -1.0672266 3
-2.4708221 -52.588814 14.106673 33
-4.5200343 -47.028427 8.6140099 19
-1.5338866 -32.647141 -0.76051861 6
-0.057926875 -33.190899 -0.57935011 9
-3.3309636 -33.371975 -0.97604561 16
-5.9994702 -40.143414 -0.47253489 6
-0.60129762 -11.869806 -1.8490338 1
-1.4309734 -14.336514 -1.8339198 1
-0.076336443 -43.739197 0.25421312 22
-4.0696549 -40.772713 -0.23814899 5
-0.79597706 -15.712841 -1.6947038 2
-2.8309526 -18.942356 -1.7878722 0
-2.1745 -42.925323 1.0001289 20
-5.814425 -38.905247 0.45796022 12
-1.0037401 -19.814148 -1.3873167 32
-1.9881231 -19.918438 -1.6341243 12
-0.034596894 -19.823301 -1.2704526 27
-3.5225358 -23.569851 -1.3878949 18
-2.3766711 -46.916245 2.73579 23
-4.0139527 -40.214649 1.6465282 16
-1.238385 -24.446114 -1.1401987 21
-2.4589591 -24.635609 -1.2975131 22
-2.5411184 -50.162487 6.1670771 33
-4.129879 -41.37608 3.394526 14
-0.043427963 -24.883322 -1.0137743 27
-4.5302553 -30.31266 -1.0702977 3
-2.6610126 -52.529236 14.093215 33
-4.8455801 -48.546486 8.8952608 10
-1.627638 -32.130089 -0.74860781 6
-0.18337706 -36.230015 -0.6324054 11
-3.4654098 -33.591423 -0.98279458 16
-2.2553647 -41.779167 0 14
-6.1379976 -40.158882 -0.47295395 6
-0.64150876 -11.883533 -1.8514934 1
-1.4890946 -14.434313 -1.8470516 1
-0.21188702 -41.862759 0.24330997 19
-0.84957975 -15.737915 -1.6977026 2
-2.8931515 -18.92893 -1.7875004 0
-6.0697107 -39.712101 0.4676922 9
-1.0724527 -19.866491 -1.3912231 30
-2.0586648 -19.955357 -1.6377041 12
-4.0741711 -39.492359 0.69300014 12
-0.10063694 -19.882954 -1.2742902 27
-3.6145546 -23.64883 -1.3932436 17
-4.1431875 -40.161362 1.6449 16
-1.3269838 -24.581516 -1.146713 21
-2.5553982 -24.770365 -1.3050495 22
-4.1741967 -40.461945 3.320647 13
-0.12602563 -24.899027 -1.0144255 27
-4.6476636 -30.408121 -1.0742065 3
-2.7291837 -50.556358 13.56626 33
-4.9972539 -48.440125 8.8787594 10
-1.7434467 -32.296223 -0.75260913 6
-0.31028339 -36.281147 -0.63331294 11
-3.5270736 -33.058304 -0.96755117 15
-6.3183146 -40.39407 -0.47598061 10
-0.6843459 -11.9049 -1.8551829 1
-1.5403113 -14.436919 -1.8480618 1
-0.35972026 -42.061756 0.24447237 19
-4.4463863 -41.67477 -0.24358895 12
-0.90587795 -15.758677 -1.7002728 2
-2.9776707 -19.03676 -1.7986537 0
-2.2993252 -39.999123 0.93229359 14
-6.1984015 -39.627445 0.46694717 13
-1.1438522 -19.898483 -1.3937343 28
-2.1329603 -19.991657 -1.6412842 15
-0.34890583 -40.797234 1.1873592 12
-4.2128448 -39.485851 0.69313979 12
-0.17048264 -19.934376 -1.277616 31
-3.7267015 -23.825443 -1.4044063 17
-2.3405163 -40.715687 2.3750954 10
-4.2909803 -40.218189 1.647831 16
-1.4132375 -24.584715 -1.1470852 29
-2.6549821 -24.884426 -1.3115392 20
-4.309062 -40.387665 3.3157654 13
-0.213654 -24.982363 -1.0178449 28
-4.7673683 -30.478603 -1.0772777 3
-2.8464329 -49.516621 13.289841 33
-5.2677536 -49.373222 9.0531054 11
-0.40476137 -33.128483 -0.57830292 9
-3.5016761 -31.717779 -0.9286862 14
-0.72870052 -11.914145 -1.8570276 1
-1.5949585 -14.446951 -1.850082 1
-0.51779729 -42.380127 0.24633217 19
-5.4027886 -48.937836 -0.2861554 8
-0.96411812 -15.763189 -1.7011297 2
-3.0575049 -19.088638 -1.8046021 0
-2.4488492 -40.038322 0.93341023 14
-6.2904692 -39.272709 0.46303573 13
-1.2201893 -19.949915 -1.3976407 23
-2.2105966 -20.023331 -1.6445389 15
-0.49887827 -40.831661 1.1884065 12
-4.365006 -39.53772 0.69432652 12
-0.24374251 -19.949579 -1.2786392 34
-3.8506351 -24.040314 -1.4178945 12
-4.4313464 -40.138626 1.6452255 16
-1.5057782 -24.619251 -1.1489465 25
-2.7553785 -24.957903 -1.3159354 30
-4.5323133 -41.053173 3.3717442 13
-0.30590466 -25.037361 -1.0201246 28
-4.8980169 -30.57934 -1.0814656 3
-3.0215397 -49.401726 13.261889 33
-0.51660258 -33.254921 -0.58053684 9
-3.8309906 -33.676445 -0.9864018 24
-2.6927421 -41.753262 0 14
-6.6853943 -40.870014 -0.4821271 7
-0.76922184 -11.927441 -1.8594873 1
-1.6473415 -14.481009 -1.8551328 1
-0.66006851 -42.490158 0.24698311 20
-4.5835052 -40.291451 -0.23568474 5
-1.017664 -15.779749 -1.7032715 2
-3.1227157 -19.090187 -1.8057176 0
-2.5579271 -39.662842 0.92484939 43
-6.4374528 -39.354263 0.46424642 8
-1.2891623 -19.989561 -1.4007101 28
-2.2814889 -20.055502 -1.6477934 12
-0.65352774 -42.069111 1.2244788 14
-4.4653511 -39.252815 0.68957949 12
-0.31125903 -20.036474 -1.2842675 31
-3.8433068 -23.495399 -1.3864995 8
-4.5892701 -40.342125 1.6541812 11
-1.5920373 -24.685896 -1.1522968 25
-2.8448973 -25.008163 -1.3190756 27
-4.6494966 -40.871552 3.3580749 20
-0.38967299 -25.084164 -1.0220785 28
-5.0122991 -30.641832 -1.0842576 3
-3.1930499 -49.51096 13.293982 33
-4.9291234 -43.32962 7.9510632 16
-2.0280178 -31.446144 -0.73325419 5
-0.79336262 -41.698105 -0.72797477 16
-3.9308207 -33.511967 -0.98198003 16
-6.8135099 -40.759644 -0.48110273 7
-0.8116563 -11.936513 -1.8613319 1
-1.6964931 -14.463346 -1.8536175 1
-0.78821981 -41.427803 0.24082246 18
-1.0792149 -15.871327 -1.7135528 2
-3.1965573 -19.122381 -1.8098069 0
-2.6559393 -39.059208 0.91098464 27
-6.5695109 -39.299995 0.46387392 8
-1.3602849 -20.004845 -1.4021051 26
-2.3551977 -20.079092 -1.6503971 12
-4.5823078 -39.066181 0.68657762 12
-0.38271663 -20.115086 -1.2893841 28
-4.7547402 -40.53624 1.6628113 5
-1.6811796 -24.724037 -1.1543441 25
-2.9405518 -25.069492 -1.3228438 23
-4.8362598 -41.231232 3.3889933 7
-0.47859973 -25.154577 -1.0250094 28
-5.1422982 -30.762152 -1.0891435 3
-3.3286362 -48.952133 13.146973 33
-5.0684237 -43.210533 7.9324088 24
-1.054701 -46.83699 -0.81774998 25
-4.0098839 -33.18446 -0.9727875 23
-6.6965556 -39.217682 -0.46317545 9
-0.85416371 -11.945434 -1.8631767 1
-1.7498258 -14.480973 -1.856648 1
-4.8546038 -40.175076 -0.23519655 5
-1.1346102 -15.867463 -1.7135528 2
-3.2740138 -19.17392 -1.8157555 0
-2.787703 -38.985878 0.90949571 13
-6.7133861 -39.316246 0.46433952 13
-1.4320995 -20.027834 -1.4040582 28
-2.4305339 -20.114286 -1.6539772 10
-0.90769356 -40.308712 1.1733958 23
-4.7263246 -39.113483 0.68769467 12
-0.45481685 -20.197433 -1.2947565 32
-4.1692252 -24.416634 -1.4425454 27
-1.7711781 -24.769831 -1.1567637 18
-3.0376272 -25.138388 -1.3270307 23
-2.8243065 -39.497776 4.8621001 13
-0.5666734 -25.164742 -1.0254979 28
-5.2651234 -30.834646 -1.0923543 3
-3.4992168 -48.936356 13.145938 33
-5.2890935 -43.770771 8.0385952 16
-2.351037 -32.879128 -0.76703227 12
-0.8847779 -34.015312 -0.59394032 9
-4.1424708 -33.305161 -0.97674376 24
-3.7342446 -49.780136 0 24
-6.84165 -39.241352 -0.46373421 6
-0.89792424 -11.96997 -1.8674811 1
-1.8013414 -14.482654 -1.8576581 1
-1.1923696 -15.895135 -1.7169801 2
-3.342973 -19.174143 -1.8168707 1
-6.8753123 -39.434425 0.46601588 13
-1.5046853 -20.058525 -1.4065696 26
-2.5061421 -20.1492 -1.6575572 10
-1.0457885 -40.205372 1.1704867 23
-4.8534446 -39.021339 0.68636829 12
-0.52614468 -20.227648 -1.2968032 22
-4.2702022 -24.492411 -1.4478943 27
-4.9503007 -39.800056 1.6339904 15
-1.8650999 -24.86311 -1.1614169 26
-3.1460636 -25.294121 -1.3358232 23
-2.9520607 -39.353069 4.8455257 13
-5.0477138 -40.583248 3.3385472 20
-0.65710688 -25.262493 -1.0295687 28
-5.3953786 -30.946037 -1.096961 3
-3.681571 -49.077961 13.187348 33
-5.397161 -43.39278 7.9725871 24
-2.432884 -32.432076 -0.75679648 12
-4.2627659 -33.322224 -0.97767466 16
-6.9785929 -39.217232 -0.46373421 6
-0.93784708 -11.94312 -1.8637916 1
-1.8539004 -14.49202 -1.8596785 1
-1.1958145 -40.529678 0.23566149 17
-5.1359754 -40.14814 -0.23524304 11
-1.2484717 -15.898805 -1.7178369 2
-3.4147704 -19.189806 -1.8194731 1
-3.0410244 -38.726269 0.9039126 13
-6.9933081 -39.299927 0.46471205 8
-1.5812565 -20.13669 -1.4124291 23
-2.5825343 -20.18778 -1.6614625 10
-1.1853055 -40.1735 1.1696721 23
-5.0007949 -39.091431 0.68790406 18
-0.59734064 -20.245638 -1.2980824 26
-4.3640695 -24.524534 -1.450685 31
-3.1339245 -39.909313 2.3313749 18
-5.0851474 -39.750816 1.6326878 10
-1.9597008 -24.956032 -1.16607 22
-3.2571502 -25.461283 -1.3452435 28
-5.1478686 -40.241112 3.3118598 6
-0.74776435 -25.343939 -1.0329881 28
-5.5124774 -30.978182 -1.0987757 3
-5.5910478 -43.70546 8.0335722 8
-2.7004197 -34.388802 -0.80267143 13
-7.1225858 -39.231987 -0.46419987 9
-0.98114556 -11.95947 -1.8668662 1
-1.9179227 -14.587748 -1.8728104 1
-1.3375427 -40.533257 0.235708 17
-5.2672195 -40.062546 -0.23484781 11
-1.3062361 -15.922095 -1.7208356 2
-3.4881358 -19.213036 -1.8228192 0
-7.1847444 -39.574364 0.46825096 13
-1.6561029 -20.186722 -1.4163355 23
-2.6587017 -20.222122 -1.6650426 10
-1.3244716 -40.137146 1.1687413 11
-5.1038508 -38.819962 0.68343627 6
-0.66932225 -20.283323 -1.3006406 26
-4.4632006 -24.583801 -1.4551035 24
-3.2614572 -39.754856 2.3230028 17
-5.1842747 -39.431664 1.6203127 15
-2.0588877 -25.096384 -1.1729566 26
-3.3616254 -25.568571 -1.3515239 24
-4.1473484 -50.553246 6.2280116 69
-5.271152 -40.092457 3.3011196 19
-0.83793807 -25.393103 -1.0351049 29
-5.6434259 -31.084612 -1.1032429 3
-3.9631395 -48.307865 12.98754 33
-6.4458065 -49.026897 9.0157967 10
-2.8109572 -34.26358 -0.79997283 13
-1.4649664 -40.143162 -0.70116788 13
-4.4952908 -33.291656 -0.97767466 24
-3.4813244 -40.691349 0 13
-7.6621852 -41.381763 -0.48994994 11
-1.0255815 -11.987476 -1.8717854 1
-1.9709558 -14.596693 -1.8748306 1
-5.534956 -40.991306 -0.24040402 6
-1.3641802 -15.945176 -1.7238343 2
-3.5740335 -19.302565 -1.8324854 0
-3.365165 -39.333622 0.91861492 28
-8.1610069 -44.075794 0.52184653 11
-1.7292792 -20.212624 -1.4185677 21
-2.7340758 -20.24828 -1.6679718 10
-1.4636945 -40.108307 1.1680431 22
-0.74390584 -20.384584 -1.3072922 23
-4.5598927 -24.62697 -1.4585918 30
-3.424036 -40.021736 2.3392818 9
-5.3250952 -39.437099 1.6212897 10
-2.155334 -25.192553 -1.1777958 23
-3.4743752 -25.730862 -1.3607351 21
-3.4898951 -40.791527 5.0268669 32
-5.5487065 -41.09314 3.3850877 14
-0.92700934 -25.402004 -1.0355933 29
-5.7649984 -31.135479 -1.1057557 1
-4.138329 -48.370728 13.008245 33
-6.9328475 -51.343945 9.4462814 12
-2.909409 -34.006535 -0.79420364 19
-1.5996512 -40.001934 -0.69879436 13
-4.6312327 -33.418339 -0.98186374 24
-3.6442819 -40.914021 0 13
-7.8978472 -41.8382 -0.49567735 7
-1.0754849 -12.074371 -1.8859284 1
-2.0224409 -14.593655 -1.8753357 1
-1.610736 -40.279125 0.23428987 16
-1.4230068 -15.975967 -1.7276896 2
-3.6443458 -19.305626 -1.8339725 0
-3.541472 -39.759785 0.92885065 29
-7.929008 -42.003273 0.49763304 15
-1.8030106 -20.242235 -1.4210789 23
-2.8096645 -20.274153 -1.6709009 10
-1.572857 -39.331898 1.1455852 32
-5.3407025 -38.537773 0.67910808 11
-0.81936395 -20.489555 -1.3141996 27
-4.6650887 -24.712927 -1.4646384 26
-3.6111922 -40.542526 2.3704443 10
-5.4594326 -39.394516 1.6203127 15
-2.253186 -25.296314 -1.1830074 23
-3.6036525 -26.00346 -1.3758078 29
-3.6280372 -40.731644 5.0210171 32
-5.5733585 -40.216587 3.3144634 13
-1.0175904 -25.446537 -1.0375472 29
-5.8958931 -31.233013 -1.1099436 3
-4.4860873 -50.364891 13.54866 33
-7.9774013 -57.563828 10.595677 15
-3.0280972 -33.99617 -0.79420364 19
-4.7686725 -33.548431 -0.9861691 24
-3.7796969 -40.821392 0 13
-8.055172 -41.869289 -0.49637583 3
-1.1154382 -12.04693 -1.8822389 1
-2.0739272 -14.590435 -1.8758408 1
-3.1107793 -71.535194 0.41615629 48
-5.7055945 -40.139843 -0.23563825 11
-1.4842634 -16.030308 -1.7341156 2
-3.7252545 -19.363182 -1.8406645 1
-3.7237391 -40.217041 0.9398309 15
-9.0148401 -46.857468 0.55551249 6
-1.878071 -20.283499 -1.4244272 28
-2.8882704 -20.319481 -1.6754574 12
-1.7156962 -39.453991 1.1493089 21
-5.6029501 -39.417721 0.69495487 12
-0.89504117 -20.582283 -1.3203396 24
-4.7875338 -24.884714 -1.475801 21
-3.754159 -40.545582 2.3713746 10
-5.7307706 -40.316959 1.6590661 11
-2.34847 -25.36389 -1.1865437 27
-3.706202 -26.073771 -1.380204 36
-4.5180073 -48.795273 6.0169334 63
-5.820302 -40.946827 3.3763003 21
-1.109185 -25.506716 -1.0401525 29
-6.0177169 -31.278976 -1.1123167 3
-4.5204415 -48.821568 13.137655 33
-6.2372694 -43.880268 8.0809259 17
-3.1404765 -33.917698 -0.79262173 13
-1.8745561 -39.897903 -0.69718874 13
-4.9128451 -33.717537 -0.99163812 16
-3.9240816 -40.827862 0 13
-8.2005062 -41.836994 -0.49632925 7
-1.1574833 -12.042963 -1.8822389 1
-2.1259892 -14.590959 -1.876851 1
-2.6279628 -55.93335 0.32544395 41
-5.8693204 -40.28196 -0.23659138 11
-1.5421132 -16.044819 -1.7362574 2
-3.795887 -19.365694 -1.8421516 0
-3.8445897 -40.000793 0.93508524 15
-12.795066 -65.277321 0.77441144 15
-1.9530621 -20.320511 -1.4274964 23
-2.9660795 -20.356615 -1.6793629 10
-1.8588486 -39.563583 1.1526833 21
-5.6626635 -38.863644 0.68553054 12
-0.97081584 -20.662767 -1.325712 21
-4.8904996 -24.950142 -1.4806846 14
-3.8926113 -40.500427 2.369514 21
-5.7982855 -39.794437 1.6383867 15
-2.4385219 -25.371447 -1.1872882 31
-3.8121693 -26.163446 -1.3856469 29
-6.4713411 -44.413712 3.6640053 8
-1.198964 -25.518656 -1.0408038 29
-6.1553154 -31.402925 -1.1174818 4
-4.6427803 -48.305511 13.003069 33
-6.3626022 -43.667419 8.0457697 8
-1.6470259 -32.625481 -0.57020503 8
-5.0246091 -33.660637 -0.99047446 16
-4.1308212 -41.458717 0 14
-11.310328 -56.654133 -0.67257524 19
-2.1792521 -14.599148 -1.8788713 1
-2.8026223 -55.516365 0.32307267 41
-6.037652 -40.447166 -0.23768406 5
-1.6004771 -16.063084 -1.7388277 2
-3.8665826 -19.36795 -1.8436387 0
-4.0967956 -41.117222 0.96151209 17
-10.63456 -53.269161 0.6323902 8
-2.0295212 -20.369156 -1.4314028 24
-3.0435946 -20.389511 -1.682943 10
-1.9921033 -39.461021 1.1498907 32
-5.7841187 -38.748707 0.68385512 12
-1.0473651 -20.746964 -1.3313403 21
-5.0917025 -25.504652 -1.5146379 10
-4.0410881 -40.558117 2.3737001 10
-5.9536815 -39.884636 1.642946 16
-2.5294476 -25.386635 -1.1884049 23
-3.9477048 -26.446285 -1.4013476 30
-4.8636694 -48.8139 6.0232711 31
-6.6063242 -44.25679 3.6529398 8
-1.2920647 -25.594149 -1.0440605 29
-6.2758527 -31.436132 -1.1194363 4
-6.5271926 -43.726677 8.0608368 17
-3.3561769 -33.684052 -0.78768992 19
-5.1481185 -33.682419 -0.99163812 16
-4.2746944 -41.436089 0 14
-12.241813 -60.224228 -0.71546102 22
-2.2385929 -14.646366 -1.8859423 1
-2.2152236 -41.035557 0.23884642 17
-6.0833173 -39.801113 -0.23401092 5
-1.6593951 -16.085089 -1.7418264 2
-3.942893 -19.397264 -1.8477283 0
-4.1586356 -40.311089 0.94299471 15
-11.49607 -56.555511 0.67187679 29
-2.1047058 -20.40164 -1.4341931 22
-3.1219771 -20.426052 -1.6868483 12
-2.1235867 -39.338043 1.1465162 32
-5.9290104 -38.791534 0.68497205 18
-1.1242985 -20.826887 -1.3367127 21
-5.1958137 -25.561073 -1.5190566 20
-4.1887856 -40.60334 2.3771884 32
-6.1200428 -40.041393 1.6502733 10
-2.6278896 -25.473042 -1.1928719 27
-4.0466347 -26.47578 -1.4036505 30
-5.0328116 -48.784779 6.0218086 31
-1.3841985 -25.641365 -1.0461771 29
-6.4197888 -31.582481 -1.1254389 4
-4.9894195 -48.364162 13.027916 33
-6.4318609 -42.08152 7.7616496 15
-3.469223 -33.628372 -0.78666639 26
-2.2481856 -39.109467 -0.68378526 12
-6.3074198 -40.324409 -1.1878246 11
-4.3306122 -40.589638 0 13
-10.814115 -52.265347 -0.62135452 21
-2.2872505 -14.622783 -1.883922 1
-1.7159531 -16.083157 -1.742255 2
-4.0275221 -19.465286 -1.8555355 0
-4.3150153 -40.443451 0.9464376 15
-14.071154 -68.006836 0.80849653 34
-2.1852195 -20.481461 -1.4403317 22
-3.1988018 -20.450483 -1.6897775 12
-2.2620327 -39.350349 1.1470979 21
-6.0934277 -38.956322 0.6882531 6
-1.2031744 -20.930437 -1.3436202 26
-5.3108945 -25.667912 -1.5264982 21
-4.3842916 -41.092758 2.4067233 11
-6.2400084 -39.893436 1.6450628 10
-2.7265387 -25.555096 -1.1971527 28
-4.1495194 -26.528585 -1.4072093 33
-1.4764451 -25.684258 -1.0481311 29
-6.5567188 -31.689064 -1.1300457 4
-5.1778822 -48.530869 13.07761 33
-6.5945215 -42.159901 7.780304 23
-3.5916743 -33.663776 -0.78778303 19
-2.4815879 -40.690189 -0.71156955 14
-6.518888 -40.744331 -1.2008573 11
-9.1299553 -43.362259 -0.51588625 8
-0.064089 -0.58144164 -0.091006644 13
-2.3577132 -14.73617 -1.8995792 1
-6.6270714 -41.420494 -0.24379817 12
-1.7777481 -16.12846 -1.7478241 2
-4.1020093 -19.482285 -1.8585097 0
-4.3479466 -39.446358 0.92345369 14
-2.2628205 -20.529234 -1.4442379 27
-3.2783558 -20.490366 -1.6940085 14
-2.4130085 -39.565704 1.1536143 21
-6.9743204 -43.59087 0.77055866 15
-1.2810885 -21.005796 -1.3487368 26
-5.4169154 -25.727365 -1.5311493 18
-4.518518 -40.993847 2.4018393 11
-2.8275459 -25.652655 -1.2021781 32
-4.2496696 -26.56127 -1.4097214 33
-4.5633378 -41.400471 5.1141253 35
-1.5702276 -25.746765 -1.0508993 29
-6.6804733 -31.728571 -1.1322793 2
-5.3586845 -48.616184 13.105561 33
-6.7229958 -42.020042 7.758779 23
-3.7122283 -33.678856 -0.78843439 19
-2.6171737 -40.581501 -0.70982426 14
-6.6507468 -40.658195 -1.1989955 11
-0.069692194 -0.61263138 -0.095925927 13
-2.4097786 -14.731767 -1.9000843 1
-2.6584594 -41.221668 0.24007855 18
-6.7412672 -41.211578 -0.24270554 12
-1.8407793 -16.181427 -1.7542498 2
-4.1791663 -19.510689 -1.8625993 0
-9.3097458 -43.463104 0.51746947 5
-2.33988 -20.568787 -1.4475863 24
-3.3569405 -20.522078 -1.6975884 9
-2.5662866 -39.792454 1.1604795 22
-7.1328964 -43.605736 0.77125674 22
-1.3577447 -21.052984 -1.3520626 31
-5.5284343 -25.809826 -1.5371958 21
-2.9279132 -25.737911 -1.2066451 32
-4.3559022 -26.629059 -1.4141176 26
-4.6728239 -41.076599 5.0761023 34
-6.7325449 -41.158257 3.4046152 14
-1.6654931 -25.824884 -1.0543187 30
-6.8246784 -31.86142 -1.1378632 4
-5.282486 -46.435856 12.522701 29
-6.8747158 -42.027393 7.7645192 23
-3.8342879 -33.705425 -0.78936493 19
-5.6277847 -33.666412 -0.99338359 8
-4.8975506 -41.75375 0 14
-9.4333096 -43.301373 -0.51593286 4
-2.4605339 -14.719352 -1.8995792 1
-2.7903953 -41.036549 0.23905566 17
-6.9042091 -41.302208 -0.24337973 12
-1.8995689 -16.194653 -1.7563918 2
-4.2658968 -19.581589 -1.8707783 0
-4.5645299 -38.914608 0.91172898 27
-2.4204972 -20.635794 -1.4528879 24
-3.4371011 -20.561352 -1.7018194 11
-2.71521 -39.930843 1.164785 22
-7.2791324 -43.545067 0.77062845 15
-1.4350171 -21.103872 -1.3556441 34
-5.6295443 -25.841091 -1.5402191 26
-4.6315446 -39.485935 2.3153286 17
